# .PCD v0.7 - Point Cloud Data file format
VERSION 0.7
FIELDS x y z intensity
SIZE 4 4 4 4
TYPE F F F F
COUNT 1 1 1 1
WIDTH 1023
HEIGHT 1
VIEWPOINT 0 0 0 1 0 0 0
POINTS 1023
DATA ascii
-0.77892733 1.7268878 0.019482471 5.8308029e-42
-0.77636343 1.7537103 0.019083053 5.8672367e-42
-0.78102875 1.798587 0.018844524 5.7593367e-42
-0.78091091 1.8326612 0.018499283 4.6551135e-42
-0.78319919 1.8740979 0.018229844 5.1231472e-42
-0.77754259 1.8975813 0.017766884 4.0567591e-42
-0.77887583 1.9391994 0.017454892 3.953063e-42
-0.77942139 1.9810227 0.017106796 4.3117954e-42
-0.77000076 1.9972732 0.016567618 4.0567591e-42
-0.77539814 2.0537496 0.016359856 5.4986952e-42
-0.76650327 2.0737567 0.015840782 4.0567591e-42
-0.76401073 2.1121047 0.015447045 3.8619786e-42
-0.76208603 2.1542835 0.015048412 3.6812111e-42
-0.75740004 2.1890337 0.014631087 3.4093592e-42
-0.75088972 2.2201638 0.014192414 3.3196761e-42
-0.50252479 1.5206529 0.0092803696 7.4549078e-43
-0.4871181 1.5092504 0.0087761246 1.2009128e-42
-0.47544268 1.5088762 0.0083428547 1.3256283e-42
-0.46827608 1.5233819 0.008014854 1.4727647e-42
-0.45206863 1.5078931 0.0075540137 1.2793855e-42
-0.44485167 1.5222524 0.0072444603 1.2611686e-42
-0.43103904 1.514042 0.0068278457 1.1868998e-42
-0.41841921 1.5094743 0.0064331396 1.3256283e-42
-0.40169486 1.4897509 0.0060033076 1.2135245e-42
-0.39526895 1.5076286 0.0057559228 1.2261362e-42
-0.3828274 1.5027763 0.0054204366 1.3592595e-42
-0.37047276 1.497824 0.0050880406 1.2135245e-42
-0.36549744 1.52316 0.0048556039 1.5484348e-42
-0.35123381 1.5104758 0.0045155389 1.3018063e-42
-0.3372936 1.4976382 0.0042236075 1.3256283e-42
-0.32852554 1.5075834 0.0039970847 1.3018063e-42
-0.31963527 1.5174787 0.0037680501 1.3928907e-42
-0.31062314 1.5273229 0.003536504 1.5134023e-42
-0.29535848 1.5064719 0.0032362631 1.2009128e-42
-0.28052688 1.4854592 0.0030018613 1.098618e-42
-0.27157342 1.4950635 0.0028311764 1.1280453e-42
-0.26115704 1.4969186 0.0026449778 1.1868998e-42
-0.24816363 1.4832879 0.0024337426 1.098618e-42
-0.24136776 1.5081496 0.0022815126 1.3256283e-42
-0.2308656 1.5097933 0.0021394347 1.2009128e-42
-0.21807081 1.495906 0.0019950531 1.2261362e-42
-0.19820663 1.5065478 0.0017592735 1.3592595e-42
-0.16568193 1.5026114 0.0014704829 1.3018063e-42
-0.15442267 1.4959565 0.0014076565 1.2009128e-42
-0.14476028 1.5047711 0.0013594549 1.432127e-42
-0.12301493 1.4988662 0.0012411496 1.2009128e-42
-0.11316113 1.5074768 0.0012563398 1.2429517e-42
-0.10212872 1.5004339 0.0012646366 1.2611686e-42
-0.09262865 1.5167048 0.0012927188 1.5484348e-42
-0.070939541 1.5100527 0.0013160682 1.3256283e-42
-0.049894642 1.5108944 0.0014528239 1.432127e-42
-0.039154444 1.5033957 0.0015320793 1.2611686e-42
-0.028684486 1.5036317 0.0016187245 1.2261362e-42
-0.018027415 1.5037973 0.0017069065 1.2793855e-42
-0.0075415564 1.5038862 0.0017970029 1.2611686e-42
0.01347201 1.5116572 0.0021298022 1.3592595e-42
0.034700543 1.519133 0.002465945 1.3256283e-42
0.045479447 1.5188483 0.0026316138 1.6184997e-42
0.077206269 1.517565 0.0033198162 1.3928907e-42
0.087774716 1.5169898 0.0035590534 1.2793855e-42
0.10855243 1.507811 0.004037132 1.2429517e-42
0.11905605 1.507017 0.0043499735 1.2793855e-42
0.12888436 1.4983661 0.0046387175 1.1280453e-42
0.1400454 1.5052097 0.004975656 1.3018063e-42
0.15071373 1.5041778 0.0052939774 1.2009128e-42
0.16206655 1.5108534 0.005637065 1.1728868e-42
0.17082083 1.4941616 0.0059534777 1.1434595e-42
0.18405652 1.5161994 0.0064387606 1.5484348e-42
0.1946211 1.5148779 0.0068312623 1.3928907e-42
0.20534523 1.5134597 0.0072300518 1.2429517e-42
0.21589015 1.5119895 0.0076225526 1.5484348e-42
0.22996069 1.5336145 0.0081785871 1.6184997e-42
0.24063121 1.531974 0.0086500626 1.9337919e-42
0.25130412 1.5302566 0.0091221584 1.9337919e-42
0.260631 1.5207672 0.0095453002 1.432127e-42
0.27003255 1.5111876 0.0099723227 1.3018063e-42
0.28347209 1.5246161 0.010568621 1.5484348e-42
0.29407573 1.5226026 0.011116687 1.6184997e-42
0.30311641 1.5128577 0.011605278 1.3256283e-42
0.31363758 1.5107073 0.01215058 1.3018063e-42
0.33253181 1.5466337 0.01302676 1.779649e-42
0.34337011 1.5442586 0.013595948 1.5484348e-42
0.34886634 1.5189832 0.014018388 1.3018063e-42
0.36122063 1.5241168 0.01471484 1.2429517e-42
0.37180859 1.5215622 0.01534102 1.5834673e-42
0.38447583 1.5264617 0.016058115 1.2261362e-42
0.39714906 1.5312786 0.016776709 1.432127e-42
0.41281906 1.5473428 0.017693669 1.5484348e-42
0.42769507 1.5594958 0.018583849 1.779649e-42
0.4342992 1.5414349 0.019115811 1.7390114e-42
0.44518891 1.5383159 0.019838912 1.6969724e-42
0.46043777 1.5501168 0.020758115 1.9337919e-42
0.47575927 1.5618119 0.021751733 1.779649e-42
0.48660818 1.5584548 0.022544913 1.8679309e-42
0.49267319 1.540141 0.023114752 1.4727647e-42
0.51066577 1.5589365 0.024246709 1.4727647e-42
0.51932651 1.5478222 0.024956351 1.3928907e-42
0.54021233 1.5737162 0.026308626 1.5834673e-42
0.55371994 1.5772806 0.02731088 8.3657518e-43
1.0369771 2.889432 0.051768776 4.4295044e-42
1.0570011 2.8821375 0.053380594 3.6812111e-42
1.0803704 2.8817708 0.055229697 3.7708942e-42
1.1031874 2.8814452 0.057107382 3.6812111e-42
1.1231853 2.8736739 0.058842868 4.3117954e-42
1.1518099 2.8875287 0.061038416 5.1231472e-42
1.1720091 2.8793511 0.062801175 4.4295044e-42
1.195489 2.8780999 0.064847827 4.3117954e-42
1.2184819 2.8768823 0.066878989 4.4295044e-42
1.2415371 2.8754735 0.068921559 4.0567591e-42
1.2646312 2.8738816 0.070973456 4.6551135e-42
1.2896883 2.8755207 0.073193699 4.3117954e-42
1.3132156 2.8733892 0.075402908 4.8737161e-42
1.3331603 2.8641369 0.077398635 4.7644148e-42
1.3597078 2.8688703 0.079784743 4.7644148e-42
1.3799611 2.8591254 0.081837125 4.8737161e-42
1.4066588 2.8634367 0.084358975 5.3739796e-42
1.4265177 2.8535314 0.086480319 4.3117954e-42
1.4572746 2.8641925 0.089289524 4.9914251e-42
1.481081 2.8606827 0.091691844 5.1231472e-42
1.5009201 2.8502507 0.093931749 4.1856785e-42
1.5243521 2.8465743 0.096402563 4.1856785e-42
1.5459566 2.8392682 0.098767094 4.3117954e-42
1.577719 2.8484681 0.10184839 4.3117954e-42
1.6051327 2.850961 0.10470673 4.9914251e-42
1.6210219 2.8328755 0.10682097 4.5458122e-42
1.631156 2.8214643 0.20730539 4.8737161e-42
1.6114763 2.8327591 0.20718695 5.1231472e-42
1.5769078 2.8164668 0.20508331 4.6551135e-42
1.5569432 2.8275635 0.20492375 4.6551135e-42
1.5353595 2.8349199 0.20451942 4.8737161e-42
1.5082707 2.83178 0.20337431 5.3739796e-42
1.4816778 2.8282037 0.20222935 3.8619786e-42
1.4619308 2.8384743 0.2020476 4.3117954e-42
1.4382367 2.8418303 0.20136963 4.6551135e-42
1.4114513 2.8378353 0.20020334 5.624812e-42
1.3885697 2.8404377 0.1995341 4.1856785e-42
1.3654609 2.8429849 0.19884902 5.3739796e-42
1.3423142 2.8453813 0.19816352 5.249264e-42
1.3192225 2.8475835 0.1974792 4.7644148e-42
1.2974273 2.8533111 0.19703749 4.7644148e-42
1.2747302 2.8549998 0.19635236 5.1231472e-42
1.2517222 2.8566649 0.19565932 5.1231472e-42
1.2225709 2.8438318 0.1939898 4.9914251e-42
1.2057776 2.8594701 0.19427583 4.7644148e-42
1.176839 2.8462191 0.19260967 4.0567591e-42
1.1541511 2.847096 0.19191907 4.0567591e-42
1.1400802 2.8695605 0.19268821 4.9914251e-42
1.1172429 2.8701768 0.1919968 4.7644148e-42
1.0889207 2.8560338 0.19033559 4.8737161e-42
1.0662565 2.8562646 0.18964675 4.7644148e-42
1.0463315 2.8636372 0.18943956 5.1231472e-42
1.0237556 2.8635199 0.18874866 4.4295044e-42
1.0025189 2.8669076 0.18830054 4.7644148e-42
0.97999853 2.8664577 0.18761122 4.5458122e-42
0.95997614 2.8732383 0.18740565 5.249264e-42
0.93269271 2.857626 0.18576117 3.8619786e-42
0.91517031 2.871484 0.18604545 4.0567591e-42
0.89515835 2.8777981 0.18584761 5.1231472e-42
0.86831027 2.8615873 0.18420875 4.3117954e-42
0.84859902 2.867507 0.18401471 4.0567591e-42
0.82181978 2.850971 0.18238169 1.8048724e-42
0.79772776 2.8416226 0.18123373 4.7672174e-42
0.77791673 2.8471217 0.1810444 5.0110433e-42
0.75506347 2.8411784 0.18013836 5.0110433e-42
0.49934328 1.9328023 0.1221947 1.084605e-42
0.70775551 2.821207 0.17785855 1.9982516e-42
0.69736129 2.8639505 0.18006195 4.7672174e-42
0.67206925 2.8459702 0.17845356 3.6125474e-42
0.64355582 2.8125806 0.17589702 1.2793855e-42
0.61893892 2.7941546 0.17429531 8.3657518e-43
0.42869416 2.0016029 0.12454154 1.2135245e-42
0.41080317 1.9854547 0.12323748 1.3592595e-42
0.39697495 1.9882728 0.12311951 1.1434595e-42
0.38167283 1.9833336 0.12252862 1.3018063e-42
0.36928022 1.9936168 0.12288374 1.2135245e-42
0.35659009 2.0038543 0.12323648 1.5834673e-42
0.34335193 2.0101275 0.12336075 1.5834673e-42
0.30543238 1.8662519 0.1142953 1.1434595e-42
0.28219444 1.8028493 0.11019034 3.5004436e-42
0.2684963 1.7970616 0.10962111 3.5004436e-42
0.2581884 1.8143327 0.11046289 6.4880119e-43
0.24645537 1.8238393 0.1108331 7.5670117e-43
0.23574729 1.8409854 0.11167724 1.779649e-42
0.22293907 1.842586 0.11158211 3.1094813e-42
0.20658863 1.8131043 0.10961324 5.7593367e-42
0.19314596 1.8067485 0.10905167 5.9751367e-42
0.18191095 1.823595 0.1098922 5.7593367e-42
0.18513671 1.9956493 0.12008073 1.3928907e-42
0.16859464 1.9658138 0.11811629 1.1280453e-42
0.15676293 1.9902673 0.11942028 1.1868998e-42
0.14459932 2.0146506 0.120722 1.432127e-42
0.12882097 1.9922827 0.11922526 1.2793855e-42
0.11500873 1.9931334 0.11912893 1.432127e-42
0.10074731 1.9861021 0.11857051 1.084605e-42
0.085569717 1.9555954 0.11661976 6.3058431e-43
0.07194867 1.9561493 0.11652882 6.5861028e-43
0.059265919 1.9955913 0.11875588 1.3592595e-42
0.045189675 1.9881644 0.11819959 7.4549078e-43
0.031379789 1.9884357 0.11810751 6.8803755e-43
0.017407294 1.9730145 0.1170906 1.098618e-42
0.0037583315 2.0042882 0.11884995 1.9982516e-42
-0.010067347 1.9808753 0.11737166 1.2135245e-42
-0.02437222 2.0041547 0.11866433 3.9460565e-42
-0.038166184 1.9961445 0.11811095 4.2753616e-42
-0.051646184 1.9802437 0.11709686 2.5125281e-42
-0.063766323 1.9291762 0.11401017 1.8328984e-42
-0.077984944 1.9481721 0.11507078 3.3196761e-42
-0.092157856 1.9553661 0.1154381 2.6792827e-42
-0.1074642 1.9858325 0.11718491 3.2776371e-42
-0.12129674 1.9850409 0.11709207 2.6372437e-42
-0.13458896 1.9763727 0.11653786 2.78438e-42
-0.15066548 2.0065031 0.1182745 2.1930321e-42
-0.16615464 2.020937 0.11909011 3.1094813e-42
-0.1781252 1.996434 0.11761776 1.9982516e-42
-0.19275147 2.0029161 0.11797681 1.5484348e-42
-0.20591432 1.9937708 0.11742102 1.2793855e-42
-0.22151479 2.0077977 0.11822955 1.5134023e-42
-0.23206402 1.9752043 0.11629698 7.342804e-43
-0.2409869 1.9348503 0.11391371 4.3440252e-43
-0.26055521 1.9795275 0.11654224 6.8803755e-43
-0.27539894 1.9853975 0.11689167 1.432127e-42
-0.28815228 1.9757113 0.11632979 1.3018063e-42
-0.30544353 1.9967924 0.1175744 1.2429517e-42
-0.31589717 1.9714795 0.11609313 1.2009128e-42
-0.33090803 1.9769309 0.1164289 1.1434595e-42
-0.34602961 1.9822649 0.11676359 1.1434595e-42
-0.35982731 1.9798137 0.11664542 1.1574725e-42
-0.37879056 2.0040689 0.11809972 7.5670117e-43
-0.39073572 1.9898609 0.11728491 1.2611686e-42
-0.3983964 1.9565213 0.1153473 2.5111268e-42
-0.41042057 1.9460719 0.11476421 4.0567591e-42
-0.42231837 1.93555 0.11418215 3.7708942e-42
-0.45048654 1.9972163 0.11786584 4.7672174e-42
-0.461999 1.9825833 0.11703317 1.2135245e-42
-0.69181347 2.8779876 0.16993864 3.00018e-42
-0.72311878 2.9185324 0.17239116 3.953063e-42
-0.72703147 2.8492007 0.16836128 2.5111268e-42
-0.7330128 2.7912679 0.16501036 2.1636048e-42
-0.73972404 2.7370276 0.16187011 2.8460372e-42
-0.74205023 2.6717067 0.1580593 2.5111268e-42
-0.74671352 2.6177397 0.15492553 2.8460372e-42
-0.75285417 2.5713241 0.15224405 2.6792827e-42
-0.75053251 2.4988058 0.14802146 2.8460372e-42
-0.74660546 2.4225614 0.14358091 5.0110433e-42
-0.75409037 2.387558 0.1415548 2.7619593e-42
-0.75272024 2.3265946 0.13799451 2.9245099e-42
-0.75910062 2.2916908 0.13598445 2.8460372e-42
-0.76630443 2.260499 0.1341998 3.00018e-42
-0.76428652 2.2034833 0.13088673 3.1515202e-42
-0.76819986 2.1649284 0.12864105 3.7708942e-42
-0.77261716 2.1302118 0.12662083 3.8619786e-42
-0.76981223 2.0772538 0.1235208 4.1856785e-42
-0.77321184 2.0426779 0.12151796 4.6551135e-42
-0.77906972 2.0153978 0.11995402 4.1856785e-42
-0.78056389 1.9771458 0.11771134 4.3117954e-42
-0.78266096 1.942735 0.1156906 4.6551135e-42
-0.78133529 1.9011832 0.11324916 3.5004436e-42
-0.7870245 1.8777244 0.11189 4.4295044e-42
-0.78182226 1.8291188 0.10903692 4.1856785e-42
-0.78549165 1.8020643 0.10744107 5.3739796e-42
-0.79169112 1.7823097 0.10627798 5.3739796e-42
-0.78316581 1.7305808 0.1032128 5.4986952e-42
-0.78540397 1.703848 0.10164259 5.4986952e-42
-0.78915423 1.6806113 0.10028268 5.7411198e-42
-0.78756064 1.646856 0.098259017 5.4986952e-42
-0.79216546 1.6273303 0.097089529 5.8139873e-42
-0.79307371 1.6008301 0.095508642 4.7644148e-42
-0.7918964 1.5709131 0.093728453 5.3739796e-42
-0.7994622 1.5583339 0.092966847 5.4986952e-42
-0.79586315 1.5250813 0.090957485 4.7644148e-42
-0.78469437 1.4780831 0.088133484 5.7957704e-42
-0.78200263 1.4485718 0.086357668 5.9751367e-42
-0.79227912 1.4429981 0.086005352 5.9569198e-42
-0.78711271 1.4102103 0.08399976 5.9569198e-42
-0.79306775 1.3979291 0.083220981 5.9387029e-42
-0.79127473 1.3720124 0.081634611 5.8854536e-42
-0.79425079 1.3724482 0.027371459 5.9387029e-42
-0.78854269 1.3847435 0.026921339 5.8854536e-42
-0.79034764 1.4106494 0.026724273 5.9751367e-42
-0.79540747 1.4435943 0.026624648 5.8854536e-42
-0.78180593 1.4421368 0.025913483 6.0466029e-42
-0.78645527 1.4751229 0.02582051 5.9569198e-42
-0.78886914 1.504783 0.025646647 5.8490198e-42
-0.7962873 1.5449568 0.025627006 5.4986952e-42
-0.7996189 1.5783542 0.025465563 5.1231472e-42
-0.79035711 1.5873863 0.024926938 4.7644148e-42
-0.77928305 1.5928611 0.024332143 5.9569198e-42
-0.79185915 1.647544 0.024469331 5.3739796e-42
-0.79037046 1.6742204 0.024162034 5.7411198e-42
-0.78217137 1.6866901 0.023668827 5.3739796e-42
-0.78155541 1.7170705 0.02340892 5.7593367e-42
-0.77596378 1.7367392 0.022999462 5.7593367e-42
-0.78268379 1.7850302 0.022947997 5.8308029e-42
-0.77504903 1.8011303 0.022472622 5.624812e-42
-0.78379101 1.8568548 0.022500649 4.4295044e-42
-0.7766037 1.8767996 0.022061944 3.7708942e-42
-0.77968627 1.9219761 0.021913495 3.2285917e-42
-0.78362048 1.9709145 0.021779669 4.7644148e-42
-0.77715033 1.9944565 0.021362612 4.1856785e-42
-0.7687999 2.0144286 0.020924397 4.3117954e-42
-0.77363479 2.0710623 0.020835474 4.8737161e-42
-0.76588571 2.0947537 0.020404935 4.6551135e-42
-0.7644403 2.1368194 0.020137688 3.8619786e-42
-0.76261503 2.1789052 0.019874319 3.6812111e-42
-0.75879896 2.217432 0.019587096 3.0758501e-42
-0.74803448 2.2375722 0.019114202 5.0110433e-42
-0.4971779 1.5223857 0.012571787 8.5339076e-43
-0.49132016 1.5406976 0.012287929 1.2261362e-42
-0.48533157 1.5589694 0.012015317 1.6549335e-42
-0.4676353 1.5398939 0.01148276 1.3592595e-42
-0.45246056 1.5281352 0.01101514 1.3256283e-42
-0.44594249 1.5463207 0.010757065 1.5834673e-42
-0.43093446 1.5343496 0.010296488 1.3018063e-42
-0.41725102 1.5259838 0.0098817125 1.3018063e-42
-0.40461403 1.5213025 0.0095294686 1.2261362e-42
-0.39597329 1.5316468 0.0092718089 1.432127e-42
-0.38797712 1.5457785 0.0090280706 1.5834673e-42
-0.37258834 1.5294667 0.008613985 1.4727647e-42
-0.36020547 1.5244056 0.0082723964 1.3928907e-42
-0.34958386 1.5268776 0.0080251684 1.1280453e-42
-0.33387378 1.5063938 0.0076615615 1.2009128e-42
-0.32483402 1.5163608 0.0074513825 1.2793855e-42
-0.31426921 1.5185866 0.0072066202 1.3256283e-42
-0.30220103 1.5130695 0.0069277519 1.3018063e-42
-0.29021218 1.5074605 0.0066924794 1.1574725e-42
-0.28399065 1.5324882 0.0066055288 1.2009128e-42
-0.26903138 1.5113858 0.0063166688 1.2135245e-42
-0.25586739 1.4978218 0.0060677431 1.1728868e-42
-0.24544321 1.4995661 0.0058833566 1.1140323e-42
-0.23624732 1.5089509 0.0057526696 1.3256283e-42
-0.22687379 1.5182887 0.0056559239 1.3018063e-42
-0.21518017 1.5121 0.0055016121 1.3592595e-42
-0.20339969 1.5058471 0.0053463927 1.3256283e-42
-0.19388579 1.5149785 0.0052483515 1.3018063e-42
-0.18335874 1.5162891 0.0051240306 1.2611686e-42
-0.17279765 1.517529 0.0050638542 1.4727647e-42
-0.16139835 1.5109272 0.0049780835 1.2429517e-42
-0.15223841 1.527581 0.0049677175 1.3592595e-42
-0.14015824 1.5130457 0.0048572868 1.3018063e-42
-0.13028717 1.5217689 0.0048220833 1.2611686e-42
-0.11846963 1.507062 0.0047528776 1.1728868e-42
-0.10909279 1.5234351 0.0048102085 1.3018063e-42
-0.09779495 1.5163735 0.0047939126 1.432127e-42
-0.086326428 1.5014191 0.0047527086 1.1728868e-42
-0.075873606 1.5019836 0.0047607878 1.1574725e-42
-0.065755092 1.5102804 0.0048034946 1.2793855e-42
-0.055242397 1.5107012 0.0048815361 1.2611686e-42
-0.044525616 1.5110548 0.0049610725 1.2793855e-42
-0.034359548 1.5269487 0.0050911973 1.6184997e-42
-0.02371707 1.5271509 0.0051701535 1.6184997e-42
-0.013021034 1.5194665 0.0052221529 1.3928907e-42
-0.0024376032 1.5273324 0.0053769313 1.432127e-42
0.0081945825 1.5273118 0.0055265781 1.3592595e-42
0.018917911 1.519403 0.0056498344 1.2429517e-42
0.029508822 1.5192336 0.0057989191 1.2793855e-42
0.039877757 1.5111811 0.0059172204 1.2261362e-42
0.050950397 1.5264813 0.0061472445 1.3928907e-42
0.060646009 1.5026698 0.0062747416 1.2429517e-42
0.071675904 1.5100044 0.0065342579 1.2261362e-42
0.081762224 1.501667 0.0067220163 1.1140323e-42
0.092708305 1.5088573 0.0069799167 1.2793855e-42
0.10323943 1.5081723 0.0072031999 1.2429517e-42
0.11492848 1.5229948 0.0075652911 1.2009128e-42
0.12507673 1.5143546 0.0078302445 1.2135245e-42
0.13701592 1.5290076 0.0082122386 1.3018063e-42
0.14689653 1.5202396 0.0084699839 1.3018063e-42
0.15748161 1.5191779 0.0087699257 1.3018063e-42
0.17241558 1.5568604 0.0093372846 1.8679309e-42
0.18344781 1.5555967 0.0097270356 1.8679309e-42
0.19137533 1.5310223 0.0099588456 1.432127e-42
0.20306134 1.5373942 0.010388532 1.6184997e-42
0.21161464 1.5204639 0.010659301 1.2793855e-42
0.22340466 1.5266695 0.01110214 1.3928907e-42
0.23522143 1.5327945 0.011612281 1.9337919e-42
0.24731864 1.5387983 0.012134841 1.779649e-42
0.26190007 1.56015 0.012779782 2.0641126e-42
0.27141702 1.5505883 0.013177457 2.0641126e-42
0.28225687 1.5486476 0.013640072 1.6969724e-42
0.2930463 1.5466377 0.014160842 1.6969724e-42
0.30625641 1.5560158 0.014810357 2.5125281e-42
0.31160527 1.5270525 0.015080127 1.5484348e-42
0.3254495 1.5401294 0.015761688 1.5834673e-42
0.33116299 1.5149244 0.016050192 1.2793855e-42
0.3469272 1.5354222 0.016872708 1.2429517e-42
0.35955679 1.5405301 0.017570665 1.3592595e-42
0.37301084 1.5493762 0.018309444 1.5834673e-42
0.38094762 1.5353662 0.018778188 1.1868998e-42
0.38968837 1.5251019 0.019286619 1.2429517e-42
0.41131538 1.563872 0.020476382 1.6549335e-42
0.42238727 1.5609087 0.021179907 1.6184997e-42
0.43323359 1.5579236 0.021870418 1.6549335e-42
0.45263958 1.5849085 0.022996884 1.8679309e-42
0.45927057 1.5667151 0.023476953 1.779649e-42
0.47476739 1.5783992 0.024450282 1.779649e-42
0.47671527 1.5451295 0.024757246 1.2135245e-42
0.50157082 1.5864557 0.026253324 1.9982516e-42
0.5101909 1.5754826 0.026905835 1.6184997e-42
0.52731353 1.5904083 0.028009953 1.6969724e-42
0.5371868 1.5829618 0.02877754 1.6969724e-42
0.54047954 1.5570405 0.029209156 1.3256283e-42
1.0245315 2.8855021 0.055844493 4.4295044e-42
1.0498686 2.8929744 0.057688661 4.9914251e-42
1.062018 2.8635247 0.058815252 3.8619786e-42
1.0957766 2.8925443 0.061245352 5.249264e-42
1.1130154 2.8775451 0.062766746 4.6551135e-42
1.1362051 2.8768299 0.06463705 5.3739796e-42
1.1620128 2.8833137 0.066654198 4.7644148e-42
1.1852628 2.8822401 0.068574235 5.1231472e-42
1.2052449 2.8738983 0.070370965 4.6551135e-42
1.2313092 2.8797798 0.072529428 5.1231472e-42
1.2516059 2.8709695 0.074365385 3.953063e-42
1.2765071 2.8727612 0.076478258 4.4295044e-42
1.299754 2.870842 0.078594625 4.7644148e-42
1.3196847 2.861681 0.080524489 4.6551135e-42
1.3462117 2.866509 0.082865097 4.5458122e-42
1.373211 2.8709393 0.085258245 4.5458122e-42
1.3934432 2.8611126 0.087296844 4.9914251e-42
1.4167346 2.8583066 0.089553587 4.9914251e-42
1.4400533 2.8553138 0.0918203 4.8737161e-42
1.4669831 2.8590701 0.094328314 4.9914251e-42
1.4907676 2.8554811 0.096715011 4.9914251e-42
1.5072356 2.8379083 0.09867733 4.7644148e-42
1.5361915 2.8444693 0.10145086 5.7411198e-42
1.559692 2.8404844 0.10387726 5.7775536e-42
1.5873641 2.8429279 0.10667223 4.0567591e-42
1.6148008 2.8453164 0.10947878 5.3739796e-42
1.6427115 2.8472457 0.11234968 5.1231472e-42
1.649158 2.8292928 0.20489551 5.249264e-42
1.6213281 2.8273849 0.20370574 5.4986952e-42
1.5939581 2.8250279 0.20252174 5.7593367e-42
1.5708692 2.8290322 0.20180948 4.6551135e-42
1.5473725 2.8330874 0.2010829 5.249264e-42
1.5220703 2.8335085 0.20011514 5.3739796e-42
1.4983637 2.8373175 0.19938785 5.1231472e-42
1.4717125 2.8336885 0.19817074 4.6551135e-42
1.4483846 2.8369486 0.19742826 4.5458122e-42
1.4286011 2.8469803 0.19716999 4.9914251e-42
1.3983816 2.8359034 0.19546531 4.5458122e-42
1.3756292 2.8383646 0.194728 4.4295044e-42
1.3555102 2.8480458 0.19445673 4.7644148e-42
1.3241394 2.8326857 0.1925102 3.953063e-42
1.307686 2.8489189 0.19272566 4.6551135e-42
1.2785859 2.8364739 0.19102898 4.4295044e-42
1.2619414 2.8524654 0.19123526 4.8737161e-42
1.2386047 2.8541958 0.19048098 5.3739796e-42
1.215628 2.855602 0.18973246 5.3739796e-42
1.1897109 2.8496211 0.1885096 5.3739796e-42
1.1701763 2.8577161 0.18824531 4.6551135e-42
1.1473416 2.8585765 0.18750276 5.4986952e-42
1.1242173 2.85939 0.18675706 4.8737161e-42
1.0986711 2.852613 0.18554388 4.6551135e-42
1.0815779 2.867491 0.18575199 4.7644148e-42
1.0564629 2.8602347 0.18454732 4.7644148e-42
1.033884 2.8601999 0.18381399 4.1856785e-42
1.0136093 2.8674645 0.18354809 4.8737161e-42
0.98726237 2.856039 0.18211183 4.9914251e-42
0.96993577 2.870219 0.18232243 4.5458122e-42
0.94773471 2.8694301 0.18160407 5.3739796e-42
0.92294973 2.8611293 0.18042016 3.953063e-42
0.90537965 2.8749304 0.18064125 5.1231472e-42
0.88043165 2.8663719 0.17945643 4.3117954e-42
0.85824537 2.8649681 0.17874467 4.0567591e-42
0.83636814 2.8633223 0.17804272 2.9245099e-42
0.81426841 2.8615923 0.17734392 5.0110433e-42
0.79017764 2.8521707 0.17618237 5.0110433e-42
0.76792163 2.8501818 0.17548265 5.0110433e-42
0.74115783 2.8290644 0.17363088 1.5134023e-42
0.71204048 2.7963254 0.1710953 5.5631549e-43
0.7075423 2.8617921 0.17457704 5.0110433e-42
0.68761414 2.8666589 0.17435941 5.0110433e-42
0.66556406 2.8638656 0.17367758 4.1114097e-42
0.63877219 2.838006 0.1716201 1.821688e-42
0.42659533 1.9584125 0.11810067 6.1096613e-43
0.41622493 1.9765942 0.11887804 1.3928907e-42
0.40247768 1.9794476 0.11873706 1.5134023e-42
0.38696459 1.9746002 0.11813568 1.432127e-42
0.37033856 1.9619229 0.11708055 1.1728868e-42
0.35530081 1.9567839 0.1164844 1.1574725e-42
0.34582123 1.9822447 0.11772016 1.6969724e-42
0.32687721 1.9538406 0.11576916 1.432127e-42
0.28961602 1.8097906 0.10699069 8.3657518e-43
0.27703807 1.8117654 0.1068744 4.5458122e-42
0.26836738 1.8406675 0.10834796 3.779302e-42
0.25184244 1.8154529 0.10664182 5.6752588e-43
0.24280491 1.844227 0.10811783 7.342804e-43
0.22659647 1.8187894 0.10642175 1.432127e-42
0.21643551 1.843594 0.10766742 1.821688e-42
0.20018488 1.8140517 0.10574888 6.0101691e-42
0.18756206 1.8154067 0.10563988 5.8308029e-42
0.17498407 1.8166684 0.10553243 2.7619593e-42
0.17830856 1.9965242 0.11579358 1.821688e-42
0.16354814 1.9899684 0.11522987 1.432127e-42
0.14854093 1.9755085 0.11421926 1.2611686e-42
0.13478453 1.9765012 0.11410871 1.4727647e-42
0.12151768 1.9851816 0.11444714 1.6184997e-42
0.10648737 1.9626179 0.11299493 1.4727647e-42
0.093354732 1.9789093 0.11378731 7.342804e-43
0.07786639 1.936653 0.11122285 1.1140323e-42
0.065043502 1.9566419 0.11224023 2.3878126e-42
0.051434033 1.9570528 0.11213865 1.821688e-42
0.0376154 1.9456712 0.11136769 8.7020635e-43
0.024497794 1.9965885 0.11416663 8.0294402e-43
0.010482068 1.9733173 0.11273005 1.9337919e-42
-0.0032146194 1.9655484 0.11218634 2.0641126e-42
-0.016889501 1.9654841 0.11208802 2.0641126e-42
-0.030119723 1.9380286 0.11043446 2.5111268e-42
-0.045094009 2.0040598 0.11411165 4.6046668e-42
-0.058588568 1.9803064 0.11268376 4.4407148e-42
-0.071533419 1.9564714 0.11125976 3.00018e-42
-0.084299169 1.93645 0.11005959 1.66194e-42
-0.099937387 1.9786669 0.11240145 3.779302e-42
-0.11415272 1.9857159 0.11274955 3.1094813e-42
-0.12775485 1.9770765 0.11221109 2.2813139e-42
-0.1415097 1.976145 0.11211585 2.6372437e-42
-0.15650019 1.9906683 0.11290252 3.6125474e-42
-0.17036891 1.9895349 0.1128064 2.6372437e-42
-0.18350977 1.9805379 0.11226999 2.1285724e-42
-0.19599541 1.9636698 0.11129281 1.2611686e-42
-0.21302523 1.9932818 0.11295386 1.821688e-42
-0.22160751 1.9452552 0.11021926 1.5134023e-42
-0.23608935 1.9514135 0.11056045 8.7020635e-43
-0.24965754 1.9497297 0.11046266 1.779649e-42
-0.26348469 1.947915 0.11036292 1.4727647e-42
-0.28148416 1.9769217 0.11201494 1.3928907e-42
-0.29525769 1.9749177 0.11190793 2.0641126e-42
-0.30780798 1.9651115 0.11136275 1.6969724e-42
-0.3277809 2.0014167 0.11343632 4.4407148e-42
-0.33909369 1.9837121 0.11245441 2.1285724e-42
-0.34767035 1.9505478 0.11060149 6.7822846e-43
-0.36418143 1.9634079 0.11136077 6.8803755e-43
-0.38080955 1.9761477 0.11210928 9.5988945e-43
-0.39992678 2.0002239 0.11350701 2.9413255e-42
-0.40355265 1.9477503 0.11056569 3.2285917e-42
-0.41736457 1.9448446 0.11044345 4.5458122e-42
-0.43261898 1.949506 0.11075585 2.8460372e-42
-0.45586637 1.9882501 0.11299965 1.8679309e-42
-0.45624575 1.9280993 0.10962144 6.6841937e-43
-0.705441 2.891108 0.16444176 3.1515202e-42
-38.577576 153.36868 8.7275362 5.0110433e-42
-0.73333323 2.831836 0.16123101 2.4270489e-42
-0.73414505 2.7550139 0.15694167 2.5952048e-42
-0.73474187 2.6821418 0.15285642 5.0110433e-42
-0.74178231 2.6356721 0.15028055 2.6792827e-42
-0.74419427 2.5741572 0.14685272 2.5952048e-42
-0.75098896 2.5315368 0.14450552 2.4270489e-42
-0.74260592 2.4403963 0.13939205 5.0110433e-42
-0.75501424 2.4202607 0.13831021 2.9245099e-42
-0.75640178 2.3666623 0.13531511 2.4270489e-42
-0.75829393 2.3168702 0.13254143 3.2285917e-42
-0.76351869 2.278173 0.13040769 2.7619593e-42
-0.76168233 2.2211483 0.12722699 3.00018e-42
-0.76568663 2.1826165 0.12508902 3.2285917e-42
-0.76770341 2.1405282 0.12273686 3.5004436e-42
-0.766487 2.0911946 0.11997281 3.8619786e-42
-0.77171737 2.0601521 0.11826301 3.953063e-42
-0.77489978 2.0255947 0.11635402 4.0567591e-42
-0.77501142 1.9837459 0.11401273 3.6812111e-42
-0.77291751 1.9384588 0.11145958 3.5901267e-42
-0.78640002 1.9330431 0.11120337 4.0567591e-42
-0.78512287 1.8914106 0.10886902 3.8619786e-42
-0.78460884 1.8535739 0.10675529 5.249264e-42
-0.7884208 1.8265067 0.10524429 5.1231472e-42
-0.7917043 1.7995614 0.10372876 5.249264e-42
-0.78667259 1.7548617 0.10119354 5.624812e-42
-0.77964985 1.7066752 0.098460957 5.7411198e-42
-0.78343612 1.6834668 0.097172365 5.7411198e-42
-0.79187369 1.6709021 0.096467897 5.7593367e-42
-0.79671246 1.6513095 0.095356002 4.7644148e-42
-0.78412133 1.5967152 0.092226662 4.1856785e-42
-0.79871202 1.5982106 0.092340946 5.1231472e-42
-0.79781938 1.5680958 0.090622887 5.249264e-42
-0.79076821 1.5278853 0.088298284 5.624812e-42
-0.79045457 1.5016638 0.086786345 5.8308029e-42
-0.78430343 1.4651964 0.084686257 5.8672367e-42
-0.78717452 1.445931 0.083584458 5.8854536e-42
-0.78988928 1.4266585 0.082446337 5.8139873e-42
-0.79216003 1.4075385 0.081319004 5.9751367e-42
-0.79807729 1.3952296 0.080589414 5.920486e-42
-0.8029815 1.3763652 0.029646564 5.8490198e-42
-0.79711658 1.3887954 0.029238563 5.920486e-42
-0.79127932 1.4011186 0.028834494 5.8854536e-42
-0.78911257 1.4202502 0.028562995 5.9022691e-42
-0.78686929 1.4393356 0.028289318 5.9751367e-42
-0.77685279 1.4447767 0.027753392 6.0466029e-42
-0.78303325 1.4813269 0.027791206 5.9387029e-42
-0.78350967 1.5075457 0.0276246 5.9022691e-42
-0.79794335 1.5616313 0.027944138 5.7593367e-42
-0.78366905 1.5601162 0.02727483 4.4295044e-42
-0.78488648 1.5900619 0.027149461 5.4986952e-42
-0.79424608 1.6376708 0.027299967 5.249264e-42
-0.78934956 1.6573677 0.026952865 4.9914251e-42
-0.78957373 1.6875048 0.026793215 4.9914251e-42
-0.78107506 1.7000644 0.026354216 5.3739796e-42
-0.77886319 1.7268289 0.026126085 5.8490198e-42
-0.77949238 1.760781 0.025990222 5.8490198e-42
-0.78107047 1.7984813 0.025879573 5.7957704e-42
-0.78086746 1.8325924 0.025735803 4.6551135e-42
-0.78012425 1.8668292 0.025580611 5.249264e-42
-0.77448279 1.8903067 0.025262574 3.6812111e-42
-0.77875644 1.9391614 0.025264977 4.0567591e-42
-0.77659935 1.9736526 0.025054123 3.953063e-42
-0.77552009 2.0118055 0.024921995 4.8737161e-42
-0.76426649 2.0244665 0.02446275 3.7708942e-42
-0.7664327 2.0736992 0.024431877 4.6551135e-42
-0.76394701 2.112045 0.024249995 4.1856785e-42
-0.76217592 2.1541696 0.024092911 3.5004436e-42
-0.75484389 2.1815703 0.023806455 5.0110433e-42
-0.75590861 2.2348797 0.023784127 4.0567591e-42
-0.74768674 2.262346 0.023468981 5.0110433e-42
-0.49194595 1.5240586 0.015403612 8.5339076e-43
-0.48848653 1.5497655 0.015260071 1.2429517e-42
-0.47519091 1.5457261 0.014847417 1.6184997e-42
-0.46665674 1.5564843 0.014584218 1.3018063e-42
-0.45362678 1.5521975 0.014181212 1.5134023e-42
-0.44494358 1.5628361 0.013914796 1.4727647e-42
-0.42995682 1.5508205 0.013451841 1.432127e-42
-0.4189671 1.5538279 0.013162998 1.2429517e-42
-0.41011322 1.5642682 0.012943283 1.6184997e-42
-0.39920551 1.5670897 0.012659668 1.6184997e-42
-0.38077542 1.5395001 0.012136903 1.2429517e-42
-0.36917144 1.5383092 0.011830643 1.2611686e-42
-0.35301036 1.5180473 0.01141668 1.1728868e-42
-0.3475925 1.5433319 0.011361328 1.3592595e-42
-0.34100798 1.5647968 0.011271757 1.8679309e-42
-0.321273 1.5250845 0.010745972 1.2429517e-42
-0.31922188 1.5693893 0.010812392 1.8679309e-42
-0.30288601 1.5447706 0.010425311 1.4727647e-42
-0.28921604 1.5314913 0.010153029 1.2793855e-42
-0.27576017 1.5180947 0.0098843565 1.2793855e-42
-0.26920411 1.5430684 0.0098648481 1.5834673e-42
-0.25329015 1.5140867 0.0095017757 1.1140323e-42
-0.24259472 1.515838 0.0093405172 1.2135245e-42
-0.22968017 1.5020449 0.0091377292 1.2135245e-42
-0.2237176 1.5345318 0.0092155691 1.3018063e-42
-0.2098155 1.5128371 0.008968018 1.098618e-42
-0.20130864 1.5297539 0.0089502335 1.432127e-42
-0.19260529 1.5466214 0.0089305304 1.9982516e-42
-0.17984882 1.5324261 0.0087756077 1.3256283e-42
-0.17088076 1.5491729 0.0088177789 1.6969724e-42
-0.15769039 1.5270114 0.0086392481 1.2611686e-42
-0.14781044 1.5358483 0.0086370483 1.432127e-42
-0.1378151 1.5446212 0.0086343819 1.6184997e-42
-0.1275152 1.5533447 0.00864885 1.779649e-42
-0.11493462 1.5308239 0.0085365605 1.432127e-42
-0.10428056 1.5315865 0.0085543049 1.5134023e-42
-0.094559595 1.5478714 0.0086593218 1.5834673e-42
-0.082084537 1.5172886 0.0085024135 1.2429517e-42
-0.072423026 1.5412439 0.0086517334 1.4727647e-42
-0.061059572 1.5260983 0.0086382711 1.3018063e-42
-0.050939694 1.5421025 0.0088133439 1.3592595e-42
-0.039596677 1.51899 0.0087647382 1.3018063e-42
-0.02916017 1.5270394 0.0088956254 1.4727647e-42
-0.018141652 1.5115838 0.0088910796 1.3018063e-42
-0.0077942628 1.5507343 0.0092332847 1.5834673e-42
0.0029995714 1.5429374 0.009341985 1.3928907e-42
0.013600138 1.5272542 0.0094008157 1.2429517e-42
0.024120953 1.5193101 0.0095055867 1.2429517e-42
0.046202201 1.5422447 0.0099656051 1.6549335e-42
0.056655567 1.5340769 0.010134475 1.432127e-42
0.067351215 1.5336431 0.01036028 1.3256283e-42
0.077631913 1.5253332 0.010531906 1.3018063e-42
0.087814577 1.5169538 0.010701541 1.2135245e-42
0.09906964 1.5240877 0.010984889 1.098618e-42
0.11141752 1.5467315 0.011417115 1.3928907e-42
0.12157302 1.5381277 0.011658121 1.3592595e-42
0.13161409 1.5294578 0.011896104 1.2793855e-42
0.1408163 1.5129443 0.012069011 1.1574725e-42
0.15309496 1.5274522 0.012495357 1.2611686e-42
0.16544721 1.5418763 0.012930068 1.7390114e-42
0.17973799 1.5717293 0.013571608 2.0641126e-42
0.18972978 1.5626819 0.01388318 1.8679309e-42
0.20159541 1.5690687 0.014332552 1.9337919e-42
0.21270032 1.5675983 0.01471967 2.0641126e-42
0.223648 1.5660704 0.015101672 2.0641126e-42
0.23457661 1.5644665 0.015535259 1.779649e-42
0.24607946 1.5666479 0.016026581 2.2813139e-42
0.25509211 1.553327 0.016357774 1.4727647e-42
0.26589629 1.5515094 0.016806792 1.821688e-42
0.27826211 1.5572706 0.017349837 1.821688e-42
0.28987819 1.5591179 0.017879186 1.6969724e-42
0.29849595 1.545552 0.018264867 1.4727647e-42
0.31154311 1.5549215 0.018922484 1.5834673e-42
0.32394099 1.5603588 0.019539915 1.5134023e-42
0.33334494 1.5503806 0.019975334 1.5134023e-42
0.34335539 1.5441862 0.02046643 1.2009128e-42
0.36021364 1.568399 0.02141797 1.4727647e-42
0.3648006 1.539245 0.021640956 1.2793855e-42
0.38568836 1.5784005 0.022831559 1.5484348e-42
0.38921487 1.5453228 0.022994367 1.3928907e-42
0.41182256 1.5879115 0.024293665 1.779649e-42
0.41480237 1.5548077 0.024494113 1.3928907e-42
0.4318043 1.5744746 0.025523663 1.6184997e-42
0.44698113 1.5864598 0.026447179 1.821688e-42
0.44949833 1.5532347 0.026623117 1.2611686e-42
0.47153136 1.5874635 0.027963392 1.7390114e-42
0.48028016 1.5766612 0.028574387 1.6969724e-42
0.49355784 1.5807267 0.029456221 1.5834673e-42
0.51286477 1.6032826 0.03070125 2.0641126e-42
0.52158028 1.5922362 0.031314917 1.3592595e-42
0.53297442 1.5884427 0.032107245 1.3256283e-42
0.54907602 1.5994581 0.033232458 1.3018063e-42
1.0052452 2.8632009 0.061117921 2.7619593e-42
1.0369978 2.8891945 0.063324936 4.7644148e-42
1.0597695 2.8892071 0.064990744 5.3739796e-42
1.0804138 2.8815143 0.066589072 4.9914251e-42
1.103195 2.8811967 0.06837339 4.5458122e-42
1.1231802 2.8734262 0.069988668 4.3117954e-42
1.145981 2.8727796 0.071783334 3.953063e-42
1.1690347 2.8718688 0.073603101 4.7644148e-42
1.1984283 2.8850703 0.075916462 4.6551135e-42
1.2154092 2.8694317 0.077454023 4.4295044e-42
1.2384224 2.8680365 0.079379797 4.8737161e-42
1.2614965 2.8664486 0.081316151 4.1856785e-42
1.2849039 2.8645425 0.083328165 4.4295044e-42
1.3099852 2.8659897 0.08551906 4.1856785e-42
1.3331594 2.8638439 0.087583721 4.5458122e-42
1.3530431 2.8544462 0.089438401 5.7411198e-42
1.3765749 2.8517861 0.09156058 4.3117954e-42
1.4032218 2.8561177 0.093962029 4.3117954e-42
1.4230306 2.8462348 0.095913857 4.3117954e-42
1.4501963 2.8499565 0.098380245 4.1856785e-42
1.4738928 2.8465002 0.10062627 4.4295044e-42
1.5008918 2.849946 0.10317958 4.6551135e-42
1.5243224 2.8462677 0.10549771 5.1231472e-42
1.5496404 2.8458288 0.10795587 4.6551135e-42
1.5701032 2.8345068 0.11012691 3.8619786e-42
1.5974486 2.8370352 0.11283754 5.7411198e-42
1.6210077 2.8325515 0.11529119 5.624812e-42
1.6392111 2.8354232 0.19990873 5.1231472e-42
1.607828 2.8264751 0.19816747 5.249264e-42
1.5809358 2.8237653 0.19690876 4.6551135e-42
1.5609084 2.8349082 0.19656649 4.9914251e-42
1.535587 2.8354318 0.195521 5.249264e-42
1.5121665 2.8391814 0.19471394 5.249264e-42
1.4855553 2.8356225 0.1934413 5.3739796e-42
1.4621938 2.838994 0.19262178 4.8737161e-42
1.4385253 2.8423462 0.19179814 5.3739796e-42
1.4152361 2.8453298 0.19098237 5.1231472e-42
1.3889043 2.8409474 0.18970665 4.4295044e-42
1.3691311 2.8505528 0.18935741 4.7644148e-42
1.3459377 2.8529794 0.18854146 4.9914251e-42
1.3194985 2.8481455 0.18726197 4.7644148e-42
1.297685 2.8538904 0.1866764 4.6551135e-42
1.2717758 2.8484793 0.18541028 4.4295044e-42
1.2488012 2.8501358 0.18460596 4.7644148e-42
1.2258425 2.8516204 0.18380293 4.4295044e-42
1.2059766 2.8601005 0.18346299 4.5458122e-42
1.1800233 2.8540561 0.18220164 4.3117954e-42
1.1602005 2.8621929 0.18186723 5.249264e-42
1.131619 2.8484733 0.18015663 3.953063e-42
1.1117955 2.8562899 0.1798242 3.953063e-42
1.0946724 2.8712652 0.17994811 5.3739796e-42
1.0637269 2.849618 0.17779128 5.249264e-42
1.0438628 2.8569746 0.17746645 4.7644148e-42
1.026598 2.8715279 0.17759624 5.1231472e-42
1.0027204 2.8675821 0.1765905 4.9914251e-42
0.98273236 2.8745131 0.17626607 4.9914251e-42
0.9552176 2.859134 0.17458862 3.953063e-42
0.93772912 2.8731415 0.17473447 5.1231472e-42
0.91532964 2.8721893 0.17397809 4.8737161e-42
0.8906725 2.8636174 0.17277393 5.1231472e-42
0.87299877 2.8772247 0.17291899 5.3739796e-42
0.84655201 2.8607411 0.17127579 2.9245099e-42
0.82196158 2.8516896 0.17009182 5.0110433e-42
0.80631191 2.8723767 0.1707008 5.0110433e-42
0.78219104 2.8628871 0.1695247 5.0110433e-42
0.76224822 2.8682783 0.16924112 5.0110433e-42
0.72971731 2.824409 0.16607311 4.6663239e-43
0.71357423 2.8446324 0.16669241 3.4457929e-42
0.69747138 2.8646967 0.16731609 5.0110433e-42
0.67213494 2.846724 0.16572696 3.6125474e-42
0.65754658 2.8741539 0.16678979 1.8679309e-42
0.61812657 2.7910984 0.16146018 5.1007264e-43
0.41807979 1.9525698 0.112607 1.2611686e-42
0.40291396 1.9478004 0.11200462 1.432127e-42
0.38936165 1.9505639 0.1118421 1.2261362e-42
0.37135088 1.9302577 0.11036547 1.2611686e-42
0.36360246 1.9634814 0.11195415 1.432127e-42
0.34571126 1.9429559 0.11047938 1.5834673e-42
0.33614486 1.9683859 0.11163974 1.5484348e-42
0.30797273 1.882156 0.10648192 9.5988945e-43
0.28222206 1.8033397 0.10177246 2.5952048e-42
0.270836 1.8129798 0.10207019 5.1231472e-42
0.25493413 1.791658 0.10063171 5.3389471e-43
0.24439766 1.8088769 0.10136643 5.9134795e-43
0.23279558 1.8182781 0.10167602 1.084605e-42
0.2234163 1.8469651 0.10306489 2.6372437e-42
0.20835182 1.8291059 0.10186041 4.7644148e-42
0.19479015 1.8227619 0.10130518 5.8490198e-42
0.18269695 1.8318601 0.10161038 5.7775536e-42
0.18078154 1.9496002 0.10794735 1.9982516e-42
0.1672177 1.950817 0.10782865 1.6969724e-42
0.15274669 1.9402729 0.10706643 1.432127e-42
0.13757397 1.9179527 0.10566247 1.2793855e-42
0.12626676 1.9539146 0.10747066 1.5834673e-42
0.11272379 1.9547491 0.1073534 2.2813139e-42
0.098525077 1.9438061 0.10660407 1.3592595e-42
0.085866384 1.9639331 0.10756355 7.342804e-43
0.068901971 1.8748399 0.10255101 4.8484927e-43
0.058307834 1.9649564 0.10734413 8.5339076e-43
0.043657467 1.9224266 0.10489482 6.3058431e-43
0.030176442 1.9148892 0.10436744 6.1096613e-43
0.017241113 1.9579617 0.10660811 2.0641126e-42
0.0036092398 1.9580394 0.10651048 2.2813139e-42
-0.0098638078 1.9307194 0.10492913 1.432127e-42
-0.023632279 1.9384069 0.10525476 2.5125281e-42
-0.037481058 1.9576999 0.10621617 3.4457929e-42
-0.050805964 1.9456989 0.10548848 1.9982516e-42
-0.065236293 1.9725925 0.10687649 3.9460565e-42
-0.078658417 1.9643005 0.10636249 4.4407148e-42
-0.092918031 1.9714924 0.10669117 2.9413255e-42
-0.10664403 1.9708025 0.10659926 3.1094813e-42
-0.11943299 1.9544427 0.10566524 2.1930321e-42
-0.13355333 1.9613528 0.10599649 2.78438e-42
-0.14720759 1.9603802 0.10590681 2.2813139e-42
-0.16364631 1.990393 0.1074952 4.7672174e-42
-0.17542204 1.9658992 0.10614546 2.6372437e-42
-0.18759272 1.949106 0.10521717 1.821688e-42
-0.20041989 1.9399911 0.10470888 1.3928907e-42
-0.21477497 1.9463079 0.10503978 1.8679309e-42
-0.22945997 1.9524914 0.10536848 2.5125281e-42
-0.23872462 1.9160124 0.10340008 1.2261362e-42
-0.25307468 1.9220436 0.1037308 1.1140323e-42
-0.2702201 1.9472829 0.10510339 1.5484348e-42
-0.28100187 1.9260534 0.10397152 1.1574725e-42
-0.29854056 1.951045 0.10533853 2.1285724e-42
-0.3160758 1.9719927 0.10649332 3.9460565e-42
-0.3284961 1.9620572 0.10598525 1.7390114e-42
-0.3347747 1.9174579 0.10360907 1.098618e-42
-0.35447773 1.9496112 0.10538539 8.3657518e-43
-0.36806867 1.9470965 0.10528525 8.3657518e-43
-0.38185304 1.9444457 0.10518272 1.432127e-42
-0.40006223 1.9646772 0.106323 4.2753616e-42
-0.41213211 1.9542139 0.10580765 3.6812111e-42
-0.42405677 1.943682 0.10529324 3.5004436e-42
-0.44801623 1.9863198 0.10766135 4.6046668e-42
-0.45149353 1.9375048 0.10507005 1.3928907e-42
-0.46316525 1.9267311 0.10454433 1.2009128e-42
-0.71209061 2.8738267 0.156029 2.1930321e-42
-0.72728378 2.8499036 0.15483241 1.7081828e-42
-0.73342019 2.7919111 0.15179056 1.8188854e-42
-0.74406296 2.7527525 0.14975688 3.3196761e-42
-0.7423147 2.6723478 0.1454789 2.6792827e-42
-0.74055481 2.5958552 0.14141546 2.0500997e-42
-0.75094646 2.5644372 0.13981067 2.5111268e-42
-0.75756955 2.5217931 0.1375979 3.0758501e-42
-0.74458313 2.4156618 0.13190946 5.0110433e-42
-0.75197834 2.3806732 0.13009262 2.6792827e-42
-0.7577222 2.3419881 0.12807754 2.9245099e-42
-0.75928468 2.2922304 0.12545969 3.00018e-42
-0.76144427 2.2462604 0.12305129 2.9245099e-42
-0.76192242 2.1966193 0.12043473 5.0110433e-42
-0.76833445 2.1654422 0.11881326 3.3196761e-42
-0.76742721 2.1160455 0.11619342 3.5004436e-42
-0.77264804 2.0850577 0.11458702 3.8619786e-42
-0.773314 2.0431621 0.11238364 3.953063e-42
-0.77930516 2.015821 0.11097765 4.1856785e-42
-0.77780414 1.9703491 0.10855395 3.6812111e-42
-0.78568685 1.9504181 0.10753919 3.6812111e-42
-0.78738171 1.9160465 0.10573142 4.3117954e-42
-0.7841292 1.8709463 0.10333361 4.5458122e-42
-0.78507864 1.8366666 0.10152604 4.8737161e-42
-0.78561264 1.8024563 0.099703796 5.7775536e-42
-0.78072977 1.7577336 0.097301036 5.7957704e-42
-0.7800737 1.7238369 0.095499374 5.8139873e-42
-0.78554517 1.7041945 0.094490312 5.1231472e-42
-0.79095614 1.6844792 0.093461409 5.7411198e-42
-0.79109365 1.6542078 0.091835536 5.249264e-42
-0.79234231 1.6276286 0.090416618 4.5458122e-42
-0.79327261 1.6011064 0.089003794 5.4986952e-42
-0.79231083 1.571069 0.087398008 5.7775536e-42
-0.80321807 1.5655361 0.0871232 4.7644148e-42
-0.79242575 1.5184215 0.084537558 5.624812e-42
-0.79583371 1.4990067 0.083497576 5.7957704e-42
-0.78588557 1.455667 0.081126921 5.8308029e-42
-0.79241377 1.4432439 0.080457509 5.9569198e-42
-0.7910229 1.4172732 0.079024002 5.920486e-42
-0.8008706 1.4117479 0.07873413 5.8139873e-42
-0.79914814 1.3857807 0.077308096 5.8672367e-42
-0.79419231 1.3723799 0.032086771 5.9569198e-42
-0.80009437 1.4050292 0.03221076 5.9022691e-42
-0.79412633 1.4173827 0.031855647 5.8490198e-42
-0.79166454 1.4366337 0.031639554 5.7957704e-42
-0.78552008 1.4489049 0.031292375 5.9569198e-42
-0.788279 1.478472 0.031302985 5.920486e-42
-0.78159636 1.4908514 0.030938083 5.9022691e-42
-0.79268402 1.5379194 0.031274963 5.7775536e-42
-0.78901988 1.5573463 0.031038558 5.8139873e-42
-0.79034543 1.5872848 0.031010065 5.624812e-42
-0.78957534 1.6138078 0.030898526 5.8854536e-42
-0.78508967 1.6333557 0.03064131 5.7411198e-42
-0.79057389 1.674016 0.030774726 5.4986952e-42
-0.78218484 1.686576 0.030389925 5.8490198e-42
-0.77507359 1.7027477 0.030054649 5.7957704e-42
-0.77913117 1.7437724 0.030153381 5.8139873e-42
-0.77951729 1.7777808 0.030109322 5.920486e-42
-0.77501833 1.8010355 0.029892631 5.8308029e-42
-0.78372043 1.8567752 0.030202579 5.249264e-42
-0.78100824 1.8875494 0.03007267 4.4295044e-42
-0.7854616 1.9363843 0.030219674 4.4295044e-42
-0.77779311 1.9563084 0.029901151 5.249264e-42
-0.77419537 1.9871145 0.029767636 4.0567591e-42
-0.77146882 2.021663 0.029680014 4.1856785e-42
-0.76807022 2.0563536 0.029568827 4.4295044e-42
-0.76580888 2.0946734 0.029503152 4.6551135e-42
-0.76447535 2.1366985 0.029475227 3.953063e-42
-0.75997198 2.1714454 0.029367162 3.4093592e-42
-0.76130062 2.2247243 0.0294964 3.3196761e-42
-0.7554341 2.259702 0.029352637 3.7708942e-42
-0.74211478 2.2723372 0.028920656 2.4270489e-42
-0.50800645 1.5927024 0.019858928 6.1096613e-43
-0.49229965 1.5812751 0.019339999 1.3256283e-42
-0.4744623 1.5622456 0.018743059 1.2429517e-42
-0.47022247 1.5879879 0.018684195 1.7390114e-42
-0.44813991 1.5537518 0.017918026 1.3256283e-42
-0.43944627 1.5643528 0.017683692 1.432127e-42
-0.42653167 1.559829 0.017311247 1.2135245e-42
-0.41966483 1.5778663 0.017199922 1.4727647e-42
-0.40279058 1.5580659 0.016678449 1.432127e-42
-0.38793266 1.5457308 0.016239988 1.3256283e-42
-0.37714899 1.5484 0.015968068 1.1868998e-42
-0.36463994 1.5433699 0.015645077 1.2793855e-42
-0.35302112 1.5420643 0.015385357 9.5988945e-43
-0.34228331 1.5444854 0.015164171 1.2611686e-42
-0.33379748 1.5583298 0.015049827 1.5484348e-42
-0.32611305 1.5759169 0.014972366 1.6184997e-42
-0.31214112 1.5628159 0.01461508 1.821688e-42
-0.29978842 1.5572791 0.014372839 1.1728868e-42
-0.28539273 1.5401243 0.014027336 1.2261362e-42
-0.27448758 1.5421067 0.013855889 1.1868998e-42
-0.25981003 1.5208778 0.013482595 1.1140323e-42
-0.25555113 1.561195 0.013653976 1.5484348e-42
-0.23863633 1.5243461 0.013195924 1.1434595e-42
-0.23146537 1.5491533 0.013283424 1.1868998e-42
-0.2217588 1.5584649 0.013236167 1.5484348e-42
-0.20651282 1.5290321 0.012860198 1.3018063e-42
-0.19683826 1.5381849 0.012813494 1.432127e-42
-0.18899415 1.5627792 0.01291906 1.8679309e-42
-0.17547072 1.5407699 0.012674201 1.2611686e-42
-0.16641258 1.5574893 0.01274886 1.6969724e-42
-0.15151072 1.5197599 0.012378291 1.3256283e-42
-0.14382294 1.5518928 0.012578775 1.4727647e-42
-0.13170922 1.537287 0.012400493 1.5484348e-42
-0.12284027 1.5615313 0.012596755 1.5834673e-42
-0.11252113 1.5701412 0.012670327 1.6969724e-42
-0.1008856 1.5631032 0.012618328 1.8679309e-42
-0.087753266 1.524771 0.012314082 1.3928907e-42
-0.079105251 1.5643564 0.012639712 1.8679309e-42
-0.068215512 1.5648688 0.012681783 1.6969724e-42
-0.056726962 1.5496919 0.012629872 1.5834673e-42
-0.045507707 1.5422457 0.012641682 1.3928907e-42
-0.035291884 1.5659554 0.012908948 1.7390114e-42
-0.024003509 1.5427291 0.012790011 1.4727647e-42
-0.013309237 1.5506703 0.012930278 1.6969724e-42
-0.0024666872 1.5272875 0.01287416 1.1574725e-42
0.0083838934 1.566327 0.013346286 1.5834673e-42
0.019394528 1.5584153 0.013424409 1.6549335e-42
0.030115547 1.5504301 0.01349875 1.4727647e-42
0.040711351 1.5423719 0.013571472 1.432127e-42
0.052000403 1.5576642 0.013888316 1.4727647e-42
0.062526487 1.5494568 0.014027051 1.6549335e-42
0.073516652 1.5489722 0.014239389 1.5834673e-42
0.085160911 1.5640216 0.014593595 1.5484348e-42
0.095566362 1.5555913 0.014730209 1.5134023e-42
0.10537691 1.5392951 0.014797875 1.1434595e-42
0.11609319 1.5385212 0.015074354 1.3018063e-42
0.1263644 1.5298703 0.01527834 1.2135245e-42
0.13840902 1.5445124 0.015711723 1.3256283e-42
0.14992689 1.5512828 0.016070532 9.5988945e-43
0.16436584 1.5851635 0.016718989 3.2776371e-42
0.17543447 1.5839732 0.017055102 1.9982516e-42
0.18345357 1.5555321 0.017119918 1.7390114e-42
0.19331492 1.546461 0.017384062 1.2611686e-42
0.20612775 1.5605625 0.017911373 1.6969724e-42
0.2186078 1.5706909 0.018400367 2.2813139e-42
0.22790553 1.5575225 0.018642334 1.6549335e-42
0.23993392 1.5636137 0.019159401 2.2813139e-42
0.25285241 1.5734406 0.019735839 2.0641126e-42
0.26251295 1.5639317 0.020064691 1.779649e-42
0.27473241 1.569757 0.020590652 1.7390114e-42
0.28434065 1.5600995 0.020920778 1.5134023e-42
0.29809019 1.5734284 0.021623731 1.7390114e-42
0.31224141 1.5866005 0.022345595 1.6549335e-42
0.32014289 1.5690759 0.022626529 1.6549335e-42
0.32944497 1.5591586 0.023011211 1.5484348e-42
0.34534013 1.5797045 0.023853924 1.9982516e-42
0.35807922 1.5848668 0.024529623 1.6549335e-42
0.37284505 1.5974963 0.02535267 1.9337919e-42
0.37479317 1.5568854 0.025311353 1.2611686e-42
0.39690048 1.5997208 0.026631694 1.9982516e-42
0.40226001 1.5741957 0.026826527 1.3928907e-42
0.41127905 1.5637772 0.027313454 1.3256283e-42
0.43050557 1.5909742 0.028497923 1.7390114e-42
0.44156781 1.5879278 0.02914319 1.8679309e-42
0.45260832 1.5848042 0.029788462 1.6184997e-42
0.46804926 1.5965868 0.030723842 1.6184997e-42
0.48146918 1.6007364 0.031568415 1.6549335e-42
0.49852568 1.6159393 0.032673806 1.9982516e-42
0.50973892 1.6124222 0.033397898 1.779649e-42
0.52333355 1.6162585 0.034279589 2.1930321e-42
0.53461701 1.6125455 0.0350115 1.6969724e-42
0.54338384 1.6013492 0.035628889 1.3592595e-42
0.97711271 2.8150179 0.064171761 1.7908594e-42
1.0244353 2.8852897 0.067389309 4.9914251e-42
1.0471418 2.8854036 0.068992279 4.9914251e-42
1.0647271 2.8705969 0.070263252 4.0567591e-42
1.0874133 2.8703954 0.07197573 4.8737161e-42
1.1129886 2.8772919 0.07388483 3.8619786e-42
1.1361685 2.8765759 0.075643696 5.1231472e-42
1.1561259 2.8685715 0.077188574 4.7644148e-42
1.1852309 2.8819754 0.079392016 4.7644148e-42
1.2082595 2.8808215 0.081252597 4.7644148e-42
1.2313064 2.8794947 0.083119586 4.3117954e-42
1.2516298 2.8706694 0.084813274 4.4295044e-42
1.2749944 2.8688662 0.086717054 4.7644148e-42
1.2965468 2.8634236 0.088586204 4.1856785e-42
1.3196754 2.8613851 0.090573214 4.6551135e-42
1.3394963 2.8521035 0.092338204 4.1856785e-42
1.3630464 2.8495238 0.094374515 4.5458122e-42
1.3899262 2.8538291 0.09670648 4.4295044e-42
1.409701 2.8440485 0.098574176 3.6812111e-42
1.4434721 2.8620186 0.10143019 4.7644148e-42
1.4668654 2.8588109 0.10356785 4.9914251e-42
